# This PCD file was generated using the MATLAB® pcwrite function
# from Computer Vision Toolbox®.
# .PCD v.7 - Point Cloud Data file format
VERSION .7
FIELDS x y z
SIZE 8 8 8
TYPE F F F
COUNT 1 1 1
WIDTH 299
HEIGHT 1
VIEWPOINT 0 0 0 1 0 0 0
POINTS 299
DATA ascii
-0.082262603491740 0.050000000000000 -0.900000000000000
0.050000000000000 0.000000000000000 -0.939380791292837
-0.155503108812621 -0.050000000000000 -0.850000000000000
0.100000000000000 -0.100000000000000 -0.882598753324984
0.113408640870439 0.150000000000000 -0.850000000000000
0.191440243587203 -0.150000000000000 -0.800000000000000
0.200000000000000 0.050000000000000 -0.822992101948872
-0.303887419851287 -0.050000000000000 -0.750000000000000
0.250000000000000 -0.100000000000000 -0.779505766062603
-0.340015601645885 -0.150000000000000 -0.700000000000000
0.100000000000000 -0.350000000000000 -0.716233013541493
0.100000000000000 -0.365696562118836 -0.700000000000000
0.200000000000000 0.307464311768157 -0.700000000000000
0.250000000000000 -0.250000000000000 -0.711739144119825
0.300000000000000 -0.100000000000000 -0.744231008490904
-0.400000000000000 -0.150000000000000 -0.657048376780102
-0.441504359768524 0.050000000000000 -0.650000000000000
-0.400000000000000 0.150000000000000 -0.657048376780102
-0.150000000000000 0.350000000000000 -0.690073673098991
-0.050000000000000 -0.400000000000000 -0.676494614564217
0.050000000000000 -0.400000000000000 -0.676494614564217
-0.508255306889462 0.000000000000000 -0.600000000000000
-0.500000000000000 0.050000000000000 -0.603579219567043
-0.250000000000000 -0.350000000000000 -0.630201460117793
-0.200000000000000 -0.405469565028702 -0.600000000000000
-0.050000000000000 -0.454115007467447 -0.600000000000000
0.000000000000000 -0.459681105473697 -0.600000000000000
0.300000000000000 -0.346014531027115 -0.600000000000000
-0.450000000000000 0.200000000000000 -0.596043139581378
-0.400000000000000 -0.300000000000000 -0.568831288518423
0.250000000000000 -0.400000000000000 -0.575525418433145
0.300000000000000 -0.393646294691273 -0.550000000000000
0.400000000000000 0.322946339274117 -0.550000000000000
0.470509546857355 -0.250000000000000 -0.550000000000000
-0.600000000000000 0.100000000000000 -0.506741750867330
-0.262261513193864 0.450000000000000 -0.500000000000000
-0.050000000000000 0.500000000000000 -0.523740968818345
0.250000000000000 0.458079344926884 -0.500000000000000
0.450000000000000 -0.333805545217200 -0.500000000000000
0.529664471320239 -0.250000000000000 -0.500000000000000
0.622369887591081 0.000000000000000 -0.500000000000000
-0.650000000000000 -0.050000000000000 -0.468919981051541
-0.500000000000000 0.300000000000000 -0.486865403911700
-0.541685070000203 0.300000000000000 -0.450000000000000
-0.250000000000000 0.490893434949348 -0.450000000000000
0.100000000000000 0.536965012881243 -0.450000000000000
0.642194398718211 -0.150000000000000 -0.450000000000000
-0.700000000000000 -0.050000000000000 -0.417767076778943
-0.650000000000000 -0.227726244933235 -0.400000000000000
-0.150000000000000 0.546340135443861 -0.400000000000000
0.000000000000000 0.550000000000000 -0.427708121430814
0.050000000000000 -0.567897356095059 -0.400000000000000
0.450000000000000 -0.423172608730000 -0.400000000000000
0.650000000000000 -0.150000000000000 -0.441410184202011
0.691271653683825 -0.150000000000000 -0.400000000000000
-0.643131331712765 -0.300000000000000 -0.350000000000000
-0.500000000000000 -0.400000000000000 -0.380274295126321
0.000000000000000 -0.590600182531393 -0.350000000000000
0.450000000000000 -0.450000000000000 -0.354830825255793
0.500000000000000 -0.426809285587758 -0.350000000000000
0.455977177600058 0.450000000000000 -0.350000000000000
-0.750000000000000 -0.150000000000000 -0.332747241867044
-0.300000000000000 -0.547792118561007 -0.300000000000000
-0.288042387334429 -0.550000000000000 -0.300000000000000
0.150000000000000 -0.592785610338576 -0.300000000000000
-0.821047348859450 -0.150000000000000 -0.250000000000000
-0.843770780663482 0.050000000000000 -0.250000000000000
-0.685587304444084 0.350000000000000 -0.250000000000000
-0.550000000000000 -0.456292988981271 -0.250000000000000
-0.557088417559624 -0.450000000000000 -0.250000000000000
-0.350000000000000 0.549929384028834 -0.250000000000000
0.161380945538152 0.600000000000000 -0.250000000000000
0.300000000000000 -0.550000000000000 -0.290427716479664
-0.772096006666521 -0.300000000000000 -0.200000000000000
0.400000000000000 -0.554244574874355 -0.200000000000000
0.517751864567302 0.500000000000000 -0.200000000000000
0.750000000000000 -0.300000000000000 -0.221313139859548
0.750000000000000 -0.325150417565480 -0.200000000000000
0.805389144480832 -0.250000000000000 -0.200000000000000
-0.302587236515059 0.600000000000000 -0.150000000000000
-0.100000000000000 0.647588297023884 -0.150000000000000
0.600000000000000 -0.486031664917034 -0.150000000000000
-0.500000000000000 -0.549306810758660 -0.100000000000000
-0.350000000000000 0.600000000000000 -0.102788402815724
-0.250000000000000 0.646272072574499 -0.100000000000000
-0.200000000000000 -0.648409115011459 -0.100000000000000
-0.050000000000000 -0.650003487479947 -0.100000000000000
0.050170476881674 -0.650000000000000 -0.100000000000000
0.300000000000000 -0.634564304295413 -0.100000000000000
0.300000000000000 0.634564304295413 -0.100000000000000
0.946348070990811 0.050000000000000 -0.100000000000000
-0.950000000000000 0.050000000000000 -0.081469604906736
-0.982786885245902 0.100000000000000 -0.050000000000000
-0.949482654998946 -0.150000000000000 -0.050000000000000
-0.949482654998946 0.150000000000000 -0.050000000000000
-0.600000000000000 0.537126863225790 -0.050000000000000
-0.100000000000000 -0.651366122510025 -0.050000000000000
0.650000000000000 -0.498400599085946 -0.050000000000000
-0.850000000000000 0.350000000000000 -0.000003580863864
0.000000000000000 0.655026924032975 0.000000000000000
0.700000000000000 -0.476314710515526 0.000000000000000
0.748214285714286 -0.450000000000000 0.000000000000000
-1.000000000000000 -0.140823800293044 0.050000000000000
-0.806809771498072 -0.400000000000000 0.050000000000000
-0.753475327045265 -0.450000000000000 0.050000000000000
-0.550000000000000 0.551478521835630 0.050000000000000
-0.300000000000000 0.646868810394715 0.050000000000000
0.400000000000000 -0.601562384332905 0.050000000000000
0.550000000000000 -0.551478521835630 0.050000000000000
0.668225349359914 0.500000000000000 0.050000000000000
1.000000000000000 0.100000000000000 0.004710519514086
-0.650000000000000 0.515630316043129 0.100000000000000
-0.200000000000000 -0.651236668527221 0.100000000000000
0.100000000000000 0.652232699376698 0.100000000000000
0.300000000000000 -0.650000000000000 0.094501862197392
0.300000000000000 0.650047664134535 0.100000000000000
0.450000000000000 -0.602679240007625 0.100000000000000
0.950000000000000 0.277766176243020 0.100000000000000
-0.900000000000000 -0.350000000000000 0.101615626330325
-0.850000000000000 -0.400000000000000 0.101829535126401
-0.650000000000000 0.538742924330226 0.150000000000000
0.450000000000000 0.607263480069221 0.150000000000000
0.800000000000000 0.453026571684030 0.150000000000000
1.056842013274639 0.050000000000000 0.150000000000000
-1.064570185817639 0.100000000000000 0.200000000000000
-0.819433790509008 0.450000000000000 0.200000000000000
-0.650000000000000 0.552087878191304 0.200000000000000
0.900000000000000 0.381800441898800 0.200000000000000
-0.850000000000000 -0.439419591743197 0.250000000000000
-0.800000000000000 -0.471967057710225 0.250000000000000
-0.836838989942445 -0.450000000000000 0.250000000000000
0.100000000000000 -0.658478375344560 0.250000000000000
0.900000000000000 -0.400000000000000 0.243856120492071
-1.107060677698976 0.000000000000000 0.300000000000000
-0.900000000000000 -0.408764050868602 0.300000000000000
-0.350000000000000 0.650468222678784 0.300000000000000
0.400000000000000 0.633884698854724 0.300000000000000
1.050000000000000 0.225580746691678 0.300000000000000
-1.093076255555659 -0.150000000000000 0.350000000000000
-0.900000000000000 -0.415758323783433 0.350000000000000
0.150000000000000 0.657621917678860 0.350000000000000
-1.100000000000000 0.156982562029395 0.400000000000000
-1.054525492787395 -0.250000000000000 0.400000000000000
-1.054525492787395 0.250000000000000 0.400000000000000
-0.557141687429086 -0.600000000000000 0.400000000000000
-0.100000000000000 -0.655354264257961 0.400000000000000
0.350000000000000 0.642178567136917 0.400000000000000
0.800000000000000 0.492031876516497 0.400000000000000
0.900000000000000 -0.420869127176997 0.400000000000000
1.050000000000000 -0.250000000000000 0.359598114816035
1.050000000000000 0.250000000000000 0.359598114816035
1.100000000000000 0.150000000000000 0.378588609813644
1.113943692216841 -0.100000000000000 0.400000000000000
1.113943692216841 0.100000000000000 0.400000000000000
-0.788558400265041 0.500000000000000 0.450000000000000
-0.550000000000000 0.600000000000000 0.450000000000000
0.000000000000000 0.651537803932645 0.450000000000000
0.150000000000000 -0.651662096114060 0.450000000000000
0.250000000000000 -0.650001668449451 0.450000000000000
0.550000000000000 -0.600000000000000 0.450000000000000
-0.450000000000000 -0.613199185672558 0.500000000000000
0.500000000000000 -0.605359962926611 0.500000000000000
-0.750000000000000 0.512083336530666 0.550000000000000
-0.500000000000000 -0.600443754170953 0.550000000000000
0.750000000000000 -0.512083336530666 0.550000000000000
1.050000000000000 0.268091265061440 0.550000000000000
1.100000000000000 0.179090311929768 0.550000000000000
-1.000000000000000 -0.325762646693040 0.600000000000000
-0.350000000000000 0.609306307853113 0.600000000000000
0.300000000000000 0.611737452955206 0.600000000000000
0.600000000000000 -0.562509293633106 0.600000000000000
0.700000000000000 -0.526768043136591 0.600000000000000
0.920708031975638 0.400000000000000 0.600000000000000
-0.911014352765698 -0.400000000000000 0.650000000000000
-0.800000000000000 0.470720006817229 0.650000000000000
-0.550000000000000 -0.565175513110519 0.650000000000000
0.050000000000000 0.600000000000000 0.639021509131623
0.250000000000000 -0.602373564993779 0.650000000000000
-1.100000000000000 -0.142237805090509 0.700000000000000
-0.650000000000000 -0.523824417163061 0.700000000000000
-0.600000000000000 -0.550000000000000 0.669191300110010
-0.550000000000000 -0.554305512954757 0.700000000000000
-0.250000000000000 0.600000000000000 0.658760191231221
-0.150000000000000 0.600000000000000 0.652845171543839
-0.050000000000000 -0.568106107958512 0.700000000000000
0.300000000000000 -0.600000000000000 0.656813042861553
0.350000000000000 -0.579683184488800 0.700000000000000
0.450000000000000 -0.570065726427332 0.700000000000000
0.550000000000000 0.554305512954757 0.700000000000000
0.650000000000000 0.523824417163061 0.700000000000000
-0.800000000000000 0.450000000000000 0.741478939676065
-0.682476199512920 0.500000000000000 0.750000000000000
-0.500000000000000 0.550000000000000 0.749808073258059
-0.001164173183357 -0.550000000000000 0.750000000000000
0.250000000000000 0.561929427500778 0.750000000000000
0.700000000000000 0.500000000000000 0.728141620980280
0.795193884760959 0.450000000000000 0.750000000000000
0.950000000000000 0.350000000000000 0.722442283373062
-1.100000000000000 -0.050000000000000 0.792709461411825
-1.097794128664530 -0.050000000000000 0.800000000000000
-1.012425365867159 0.250000000000000 0.800000000000000
-0.750000000000000 -0.454568644851382 0.800000000000000
-0.500000000000000 0.527598826455075 0.800000000000000
-0.450000000000000 0.550000000000000 0.766933094942696
-0.200000000000000 0.550000000000000 0.774345883279091
-0.050000000000000 0.515985123807213 0.800000000000000
0.100000000000000 -0.521095891420453 0.800000000000000
0.300000000000000 0.550000000000000 0.786409498231991
0.500000000000000 -0.527598826455075 0.800000000000000
0.650000000000000 -0.493441333524375 0.800000000000000
0.800000000000000 -0.427999697075555 0.800000000000000
0.850000000000000 0.400591226581020 0.800000000000000
1.000000000000000 -0.266526538590838 0.800000000000000
1.068934173413128 0.150000000000000 0.800000000000000
-0.800000000000000 0.408042791776761 0.850000000000000
-0.150000000000000 0.502267972884921 0.850000000000000
0.100000000000000 0.500000000000000 0.840729580542809
0.650000000000000 -0.471158167191044 0.850000000000000
0.713127060776522 0.450000000000000 0.850000000000000
0.814355932194924 -0.400000000000000 0.850000000000000
-1.046120372110408 0.100000000000000 0.900000000000000
-0.914572488055338 -0.300000000000000 0.900000000000000
-0.853542911249711 0.350000000000000 0.900000000000000
-0.800000000000000 0.400000000000000 0.867117824579083
-0.100000000000000 -0.454752279939392 0.900000000000000
-0.050000000000000 0.450000000000000 0.895964419925926
0.000000000000000 -0.450000000000000 0.889811502984665
0.061115722097850 -0.450000000000000 0.900000000000000
0.400000000000000 -0.490105784901366 0.900000000000000
0.850000000000000 0.352495962299545 0.900000000000000
0.900000000000000 0.313006060312582 0.900000000000000
1.000000000000000 0.201279216479906 0.900000000000000
1.050000000000000 -0.100000000000000 0.892150266886500
-1.027811480093038 0.050000000000000 0.950000000000000
-1.016277594652309 0.100000000000000 0.950000000000000
-1.000000000000000 0.150000000000000 0.946831847321665
-0.967137845947109 0.200000000000000 0.950000000000000
-0.900000000000000 0.300000000000000 0.919858343091072
-0.805767483505598 -0.350000000000000 0.950000000000000
-0.350000000000000 0.457763830419565 0.950000000000000
0.400000000000000 -0.458768887013945 0.950000000000000
0.500000000000000 -0.453300795836320 0.950000000000000
0.650000000000000 -0.418729642726690 0.950000000000000
0.750000000000000 -0.378961187599175 0.950000000000000
0.950000000000000 0.224001346457804 0.950000000000000
-0.900000000000000 0.250000000000000 0.982717280889800
-0.823486837852261 -0.300000000000000 1.000000000000000
-0.150000000000000 -0.369377634638256 1.000000000000000
-0.150000000000000 0.369377634638256 1.000000000000000
0.095802889431063 -0.350000000000000 1.000000000000000
0.400000000000000 -0.450000000000000 0.962925815511388
-0.700000000000000 0.350000000000000 1.021811025837827
-0.550000000000000 -0.369933280035938 1.050000000000000
-0.400000000000000 0.378160712026813 1.050000000000000
-0.239861307422207 -0.350000000000000 1.050000000000000
-0.100000000000000 0.265264723567201 1.050000000000000
-0.075988065197007 -0.250000000000000 1.050000000000000
0.012155546200686 0.150000000000000 1.050000000000000
0.150000000000000 0.350000000000000 1.015247662492650
0.200000000000000 -0.330503415507992 1.050000000000000
0.300000000000000 0.400000000000000 1.013944995257410
0.825948619291118 -0.250000000000000 1.050000000000000
-0.800000000000000 -0.209858359616991 1.100000000000000
-0.810589936222750 0.200000000000000 1.100000000000000
-0.700000000000000 -0.300000000000000 1.076211567071725
-0.700000000000000 0.274652252574226 1.100000000000000
-0.450000000000000 0.350000000000000 1.079498332724193
-0.050000000000000 -0.150000000000000 1.057569228320742
-0.087613553997487 -0.050000000000000 1.100000000000000
-0.050000000000000 0.050000000000000 1.060921431917043
0.050000000000000 -0.200000000000000 1.051806883576895
0.050000000000000 0.050000000000000 1.060921431917043
0.085095523793027 0.000000000000000 1.100000000000000
0.250000000000000 -0.350000000000000 1.052092030438977
0.450000000000000 0.328516059955416 1.100000000000000
-0.550000000000000 -0.300000000000000 1.117840532909113
-0.362064980460288 0.250000000000000 1.150000000000000
-0.167072138331981 0.000000000000000 1.150000000000000
0.150000000000000 -0.150000000000000 1.115404508408093
0.150000000000000 -0.100000000000000 1.126016068052930
0.350000000000000 -0.250000000000000 1.147268225104938
0.362064980460288 0.250000000000000 1.150000000000000
0.750000000000000 0.169223204432559 1.150000000000000
-0.750000000000000 0.050000000000000 1.187078394333461
-0.700000000000000 -0.082253165050004 1.200000000000000
-0.650000000000000 -0.129546705629990 1.200000000000000
-0.600000000000000 0.200000000000000 1.177708330338533
-0.550000000000000 -0.250000000000000 1.156244787375917
-0.550000000000000 0.250000000000000 1.156244787375917
-0.450000000000000 0.200000000000000 1.184970992960228
0.300000000000000 -0.058642283001821 1.200000000000000
0.386320539701286 -0.150000000000000 1.200000000000000
0.450000000000000 -0.250000000000000 1.158368416185256
0.600000000000000 -0.156373438109168 1.200000000000000
0.717547866175951 0.050000000000000 1.200000000000000
-0.400000000000000 -0.150000000000000 1.201810734489668
0.400000000000000 0.000000000000000 1.224166960008561
0.550000000000000 -0.100000000000000 1.221029865185290
0.700000000000000 0.000000000000000 1.208430608718711