# This PCD file was generated using the MATLAB® pcwrite function
# from Computer Vision Toolbox®.
# .PCD v.7 - Point Cloud Data file format
VERSION .7
FIELDS x y z
SIZE 8 8 8
TYPE F F F
COUNT 1 1 1
WIDTH 868
HEIGHT 1
VIEWPOINT 0 0 0 1 0 0 0
POINTS 868
DATA ascii
-0.800000000000000 -0.471967057710225 0.250000000000000
-0.836838989942445 -0.450000000000000 0.250000000000000
-0.836838989942445 0.450000000000000 0.250000000000000
-0.800000000000000 0.471967057710225 0.250000000000000
-0.750000000000000 -0.506030004700389 0.250000000000000
-0.762199247875704 -0.500000000000000 0.250000000000000
-0.762199247875704 0.500000000000000 0.250000000000000
-0.750000000000000 0.506030004700389 0.250000000000000
-0.700000000000000 -0.529732739502080 0.250000000000000
-0.700000000000000 0.529732739502080 0.250000000000000
-0.650000000000000 -0.556158320504243 0.250000000000000
-0.668312091850537 -0.550000000000000 0.250000000000000
-0.668312091850537 0.550000000000000 0.250000000000000
-0.650000000000000 0.556158320504243 0.250000000000000
-0.600000000000000 -0.572251087830961 0.250000000000000
-0.600000000000000 0.572251087830961 0.250000000000000
-0.550000000000000 -0.600000000000000 0.249999999999999
-0.550000000000000 -0.600000000000000 0.250000000000000
-0.550000000000000 -0.600000000000000 0.250000000000000
-0.550000000000000 0.600000000000000 0.249999999999999
-0.550000000000000 0.600000000000000 0.250000000000000
-0.550000000000000 0.600000000000000 0.250000000000000
-0.500000000000000 -0.608300301963154 0.250000000000000
-0.500000000000000 0.608300301963154 0.250000000000000
-0.450000000000000 -0.617775206133372 0.250000000000000
-0.450000000000000 0.617775206133372 0.250000000000000
-0.400000000000000 -0.630709946245340 0.250000000000000
-0.400000000000000 0.630709946245340 0.250000000000000
-0.350000000000000 -0.650000000000000 0.217525033175316
-0.350000000000000 -0.650383050949937 0.250000000000000
-0.353842729300271 -0.650000000000000 0.250000000000000
-0.350000000000000 0.650000000000000 0.217525033175316
-0.353842729300271 0.650000000000000 0.250000000000000
-0.350000000000000 0.650383050949937 0.250000000000000
-0.300000000000000 -0.653423840698800 0.250000000000000
-0.300000000000000 0.653423840698800 0.250000000000000
-0.250000000000000 -0.655732354037328 0.250000000000000
-0.250000000000000 0.655732354037328 0.250000000000000
-0.200000000000000 -0.657294896746690 0.250000000000000
-0.200000000000000 0.657294896746690 0.250000000000000
-0.150000000000000 -0.658159896876452 0.250000000000000
-0.150000000000000 0.658159896876452 0.250000000000000
-0.100000000000000 -0.658478375344560 0.250000000000000
-0.100000000000000 0.658478375344560 0.250000000000000
-0.050000000000000 -0.658498265901689 0.250000000000000
-0.050000000000000 0.658498265901689 0.250000000000000
0.000000000000000 -0.658469216899477 0.250000000000000
0.000000000000000 0.658469216899477 0.250000000000000
0.050000000000000 -0.658498265901689 0.250000000000000
0.050000000000000 0.658498265901689 0.250000000000000
0.100000000000000 -0.658478375344560 0.250000000000000
0.100000000000000 0.658478375344560 0.250000000000000
0.150000000000000 -0.658159896876452 0.250000000000000
0.150000000000000 0.658159896876452 0.250000000000000
0.200000000000000 -0.657294896746690 0.250000000000000
0.200000000000000 0.657294896746690 0.250000000000000
0.250000000000000 -0.655732354037328 0.250000000000000
0.250000000000000 0.655732354037328 0.250000000000000
0.300000000000000 -0.653423840698800 0.250000000000000
0.300000000000000 0.653423840698800 0.250000000000000
0.350000000000000 -0.650000000000000 0.217525033175316
0.350000000000000 -0.650383050949937 0.250000000000000
0.350000000000000 0.650000000000000 0.217525033175316
0.350000000000000 0.650383050949937 0.250000000000000
0.353842729300270 -0.650000000000000 0.250000000000000
0.400000000000000 -0.630709946245340 0.250000000000000
0.400000000000000 0.630709946245340 0.250000000000000
0.353842729300270 0.650000000000000 0.250000000000000
0.450000000000000 -0.617775206133372 0.250000000000000
0.450000000000000 0.617775206133372 0.250000000000000
0.500000000000000 -0.608300301963154 0.250000000000000
0.500000000000000 0.608300301963154 0.250000000000000
0.550000000000000 -0.600000000000000 0.249999999999999
0.550000000000000 -0.600000000000000 0.250000000000000
0.550000000000000 0.600000000000000 0.249999999999999
0.550000000000000 0.600000000000000 0.250000000000000
0.600000000000000 -0.572251087830961 0.250000000000000
0.600000000000000 0.572251087830961 0.250000000000000
0.650000000000000 -0.556158320504243 0.250000000000000
0.650000000000000 0.556158320504243 0.250000000000000
0.668312091850537 -0.550000000000000 0.250000000000000
0.700000000000000 -0.529732739502080 0.250000000000000
0.700000000000000 0.529732739502080 0.250000000000000
0.668312091850537 0.550000000000000 0.250000000000000
0.750000000000000 -0.506030004700389 0.250000000000000
0.750000000000000 0.506030004700389 0.250000000000000
0.762199247875704 -0.500000000000000 0.250000000000000
0.800000000000000 -0.471967057710225 0.250000000000000
0.800000000000000 0.471967057710225 0.250000000000000
0.762199247875704 0.500000000000000 0.250000000000000
0.836838989942445 -0.450000000000000 0.250000000000000
0.850000000000000 -0.439419591743197 0.250000000000000
0.850000000000000 0.439419591743197 0.250000000000000
0.836838989942445 0.450000000000000 0.250000000000000
0.900000000000000 -0.400000000000000 0.243856120492071
0.900000000000000 -0.400814238085797 0.250000000000000
0.900000000000000 0.400000000000000 0.243856120492071
0.900000000000000 0.400814238085797 0.250000000000000
0.900909246136771 -0.400000000000000 0.250000000000000
0.950000000000000 -0.350000000000000 0.244397359881984
0.950000000000000 -0.350945928297689 0.250000000000000
0.950000000000000 0.350000000000000 0.244397359881984
0.950000000000000 0.350945928297689 0.250000000000000
0.900909246136771 0.400000000000000 0.250000000000000
0.950828849875680 -0.350000000000000 0.250000000000000
0.988590960866752 -0.300000000000000 0.250000000000000
1.000000000000000 -0.286118309742423 0.250000000000000
1.000000000000000 0.286118309742423 0.250000000000000
0.988590960866752 0.300000000000000 0.250000000000000
0.950828849875680 0.350000000000000 0.250000000000000
1.019806066102063 -0.250000000000000 0.250000000000000
1.050000000000000 -0.200000000000000 0.241919961886612
1.050000000000000 -0.202999628031091 0.250000000000000
1.050000000000000 0.200000000000000 0.241919961886612
1.019806066102063 0.250000000000000 0.250000000000000
1.050000000000000 0.202999628031091 0.250000000000000
1.051217926110568 -0.200000000000000 0.250000000000000
1.066432181656851 -0.150000000000000 0.250000000000000
1.080608616477066 -0.100000000000000 0.250000000000000
1.091244620961151 -0.050000000000000 0.250000000000000
1.095276339867538 0.000000000000000 0.250000000000000
1.091244620961151 0.050000000000000 0.250000000000000
1.080608616477066 0.100000000000000 0.250000000000000
1.066432181656851 0.150000000000000 0.250000000000000
1.051217926110568 0.200000000000000 0.250000000000000
-1.100000000000000 -0.050000000000000 0.269330997252395
-1.100000000000000 -0.091535906767694 0.300000000000000
-1.104974301447121 -0.050000000000000 0.300000000000000
-1.100000000000000 0.000000000000000 0.259491771766140
-1.107060677698976 0.000000000000000 0.300000000000000
-1.100000000000000 0.050000000000000 0.269330997252395
-1.104974301447121 0.050000000000000 0.300000000000000
-1.100000000000000 0.091535906767694 0.300000000000000
-1.050000000000000 -0.225580746691679 0.300000000000000
-1.060840665406072 -0.200000000000000 0.300000000000000
-1.079933918569360 -0.150000000000000 0.300000000000000
-1.097967163645119 -0.100000000000000 0.300000000000000
-1.097967163645119 0.100000000000000 0.300000000000000
-1.079933918569360 0.150000000000000 0.300000000000000
-1.060840665406072 0.200000000000000 0.300000000000000
-1.050000000000000 0.225580746691678 0.300000000000000
-1.000000000000000 -0.300000000000000 0.277848750207836
-1.000000000000000 -0.304732310378598 0.300000000000000
-1.003322044589461 -0.300000000000000 0.300000000000000
-1.034019342289280 -0.250000000000000 0.300000000000000
-1.034019342289280 0.250000000000000 0.300000000000000
-1.003322044589461 0.300000000000000 0.300000000000000
-1.000000000000000 0.300000000000000 0.277848750207836
-1.000000000000000 0.304732310378598 0.300000000000000
-0.950000000000000 -0.361191460864094 0.300000000000000
-0.960129780011674 -0.350000000000000 0.300000000000000
-0.960129780011674 0.350000000000000 0.300000000000000
-0.950000000000000 0.361191460864094 0.300000000000000
-0.900000000000000 -0.408764050868602 0.300000000000000
-0.910072985682742 -0.400000000000000 0.300000000000000
-0.910072985682742 0.400000000000000 0.300000000000000
-0.900000000000000 0.408764050868602 0.300000000000000
-0.850000000000000 -0.450000000000000 0.286490198781975
-0.850000000000000 -0.451270947910576 0.300000000000000
-0.851814294794770 -0.450000000000000 0.300000000000000
-0.850000000000000 0.450000000000000 0.286490198781975
-0.851814294794770 0.450000000000000 0.300000000000000
-0.850000000000000 0.451270947910576 0.300000000000000
-0.800000000000000 -0.481103968327836 0.300000000000000
-0.800000000000000 0.481103968327836 0.300000000000000
-0.750000000000000 -0.511180771230297 0.300000000000000
-0.773119702466341 -0.500000000000000 0.300000000000000
-0.773119702466341 0.500000000000000 0.300000000000000
-0.750000000000000 0.511180771230297 0.300000000000000
-0.700000000000000 -0.537869541330720 0.300000000000000
-0.700000000000000 0.537869541330720 0.300000000000000
-0.650000000000000 -0.559790639230580 0.300000000000000
-0.679520583221666 -0.550000000000000 0.300000000000000
-0.679520583221666 0.550000000000000 0.300000000000000
-0.650000000000000 0.559790639230580 0.300000000000000
-0.600000000000000 -0.577714620636777 0.300000000000000
-0.600000000000000 0.577714620636777 0.300000000000000
-0.550000000000000 -0.601500173038084 0.300000000000000
-0.556199917824245 -0.600000000000000 0.300000000000000
-0.556199917824245 0.600000000000000 0.300000000000000
-0.550000000000000 0.601500173038084 0.300000000000000
-0.500000000000000 -0.610648319628033 0.300000000000000
-0.500000000000000 0.610648319628033 0.300000000000000
-0.450000000000000 -0.620924802970453 0.300000000000000
-0.450000000000000 0.620924802970453 0.300000000000000
-0.400000000000000 -0.633884698854724 0.300000000000000
-0.400000000000000 0.633884698854724 0.300000000000000
-0.350000000000000 -0.650468222678784 0.300000000000000
-0.354594493146704 -0.650000000000000 0.300000000000000
-0.354594493146704 0.650000000000000 0.300000000000000
-0.350000000000000 0.650468222678784 0.300000000000000
-0.300000000000000 -0.653690702993827 0.300000000000000
-0.300000000000000 0.653690702993827 0.300000000000000
-0.250000000000000 -0.656132783025889 0.300000000000000
-0.250000000000000 0.656132783025889 0.300000000000000
-0.200000000000000 -0.657767788985937 0.300000000000000
-0.200000000000000 0.657767788985937 0.300000000000000
-0.150000000000000 -0.658644479333427 0.300000000000000
-0.150000000000000 0.658644479333427 0.300000000000000
-0.100000000000000 -0.658932109105197 0.300000000000000
-0.100000000000000 0.658932109105197 0.300000000000000
-0.050000000000000 -0.658910976679768 0.300000000000000
-0.050000000000000 0.658910976679768 0.300000000000000
0.000000000000000 -0.658863521035804 0.300000000000000
0.000000000000000 0.658863521035804 0.300000000000000
0.050000000000000 -0.658910976679768 0.300000000000000
0.050000000000000 0.658910976679768 0.300000000000000
0.100000000000000 -0.658932109105197 0.300000000000000
0.100000000000000 0.658932109105197 0.300000000000000
0.150000000000000 -0.658644479333427 0.300000000000000
0.150000000000000 0.658644479333427 0.300000000000000
0.200000000000000 -0.657767788985937 0.300000000000000
0.200000000000000 0.657767788985937 0.300000000000000
0.250000000000000 -0.656132783025889 0.300000000000000
0.250000000000000 0.656132783025889 0.300000000000000
0.300000000000000 -0.653690702993827 0.300000000000000
0.300000000000000 0.653690702993827 0.300000000000000
0.350000000000000 -0.650468222678784 0.300000000000000
0.350000000000000 0.650468222678784 0.300000000000000
0.354594493146705 -0.650000000000000 0.300000000000000
0.400000000000000 -0.633884698854724 0.300000000000000
0.400000000000000 0.633884698854724 0.300000000000000
0.354594493146705 0.650000000000000 0.300000000000000
0.450000000000000 -0.620924802970453 0.300000000000000
0.450000000000000 0.620924802970453 0.300000000000000
0.500000000000000 -0.610648319628033 0.300000000000000
0.500000000000000 0.610648319628033 0.300000000000000
0.550000000000000 -0.601500173038084 0.300000000000000
0.550000000000000 0.601500173038084 0.300000000000000
0.556199917824245 -0.600000000000000 0.300000000000000
0.600000000000000 -0.577714620636777 0.300000000000000
0.600000000000000 0.577714620636777 0.300000000000000
0.556199917824245 0.600000000000000 0.300000000000000
0.650000000000000 -0.559790639230580 0.300000000000000
0.650000000000000 0.559790639230580 0.300000000000000
0.679520583221666 -0.550000000000000 0.300000000000000
0.700000000000000 -0.537869541330720 0.300000000000000
0.700000000000000 0.537869541330720 0.300000000000000
0.679520583221666 0.550000000000000 0.300000000000000
0.750000000000000 -0.511180771230297 0.300000000000000
0.750000000000000 0.511180771230297 0.300000000000000
0.773119702466341 -0.500000000000000 0.300000000000000
0.800000000000000 -0.481103968327836 0.300000000000000
0.800000000000000 0.481103968327836 0.300000000000000
0.773119702466341 0.500000000000000 0.300000000000000
0.850000000000000 -0.450000000000000 0.286490198781975
0.850000000000000 -0.451270947910576 0.300000000000000
0.850000000000000 0.450000000000000 0.286490198781975
0.850000000000000 0.451270947910576 0.300000000000000
0.851814294794769 -0.450000000000000 0.300000000000000
0.900000000000000 -0.408764050868602 0.300000000000000
0.900000000000000 0.408764050868602 0.300000000000000
0.851814294794769 0.450000000000000 0.300000000000000
0.910072985682742 -0.400000000000000 0.300000000000000
0.950000000000000 -0.361191460864094 0.300000000000000
0.950000000000000 0.361191460864094 0.300000000000000
0.910072985682742 0.400000000000000 0.300000000000000
0.960129780011674 -0.350000000000000 0.300000000000000
1.000000000000000 -0.300000000000000 0.277848750207836
1.000000000000000 -0.304732310378598 0.300000000000000
1.000000000000000 0.300000000000000 0.277848750207836
0.960129780011674 0.350000000000000 0.300000000000000
1.000000000000000 0.304732310378598 0.300000000000000
1.003322044589461 -0.300000000000000 0.300000000000000
1.034019342289280 -0.250000000000000 0.300000000000000
1.050000000000000 -0.225580746691679 0.300000000000000
1.050000000000000 0.225580746691678 0.300000000000000
1.034019342289280 0.250000000000000 0.300000000000000
1.003322044589461 0.300000000000000 0.300000000000000
1.060840665406072 -0.200000000000000 0.300000000000000
1.079933918569360 -0.150000000000000 0.300000000000000
1.097967163645119 -0.100000000000000 0.300000000000000
1.100000000000000 -0.050000000000000 0.269330997252395
1.100000000000000 -0.091535906767694 0.300000000000000
1.100000000000000 0.000000000000000 0.259491771766140
1.100000000000000 0.050000000000000 0.269330997252395
1.097967163645119 0.100000000000000 0.300000000000000
1.100000000000000 0.091535906767694 0.300000000000000
1.079933918569360 0.150000000000000 0.300000000000000
1.060840665406072 0.200000000000000 0.300000000000000
1.104974301447122 -0.050000000000000 0.300000000000000
1.107060677698976 0.000000000000000 0.300000000000000
1.104974301447122 0.050000000000000 0.300000000000000
-1.100000000000000 -0.100000000000000 0.305240764812105
-1.100000000000000 -0.131422754869607 0.350000000000000
-1.106831149778081 -0.100000000000000 0.350000000000000
-1.113777856625557 -0.050000000000000 0.350000000000000
-1.116243589291620 0.000000000000000 0.350000000000000
-1.113777856625557 0.050000000000000 0.350000000000000
-1.106831149778081 0.100000000000000 0.350000000000000
-1.100000000000000 0.100000000000000 0.305240764812105
-1.100000000000000 0.131422754869607 0.350000000000000
-1.050000000000000 -0.246270766217288 0.350000000000000
-1.070486890335314 -0.200000000000000 0.350000000000000
-1.093076255555659 -0.150000000000000 0.350000000000000
-1.093076255555659 0.150000000000000 0.350000000000000
-1.070486890335314 0.200000000000000 0.350000000000000
-1.050000000000000 0.246270766217288 0.350000000000000
-1.000000000000000 -0.315690419388116 0.350000000000000
-1.011395602055710 -0.300000000000000 0.350000000000000
-1.047513450697624 -0.250000000000000 0.350000000000000
-1.047513450697624 0.250000000000000 0.350000000000000
-1.011395602055710 0.300000000000000 0.350000000000000
-1.000000000000000 0.315690419388116 0.350000000000000
-0.950000000000000 -0.370386650440819 0.350000000000000
-0.969078151345425 -0.350000000000000 0.350000000000000
-0.969078151345425 0.350000000000000 0.350000000000000
-0.950000000000000 0.370386650440820 0.350000000000000
-0.900000000000000 -0.415758323783433 0.350000000000000
-0.918655594210029 -0.400000000000000 0.350000000000000
-0.918655594210029 0.400000000000000 0.350000000000000
-0.900000000000000 0.415758323783433 0.350000000000000
-0.850000000000000 -0.455940981657012 0.350000000000000
-0.858684888828544 -0.450000000000000 0.350000000000000
-0.858684888828544 0.450000000000000 0.350000000000000
-0.850000000000000 0.455940981657012 0.350000000000000
-0.800000000000000 -0.488022684368542 0.350000000000000
-0.800000000000000 0.488022684368542 0.350000000000000
-0.750000000000000 -0.515184031647057 0.350000000000000
-0.782068525828837 -0.500000000000000 0.350000000000000
-0.782068525828837 0.500000000000000 0.350000000000000
-0.750000000000000 0.515184031647057 0.350000000000000
-0.700000000000000 -0.543056571646152 0.350000000000000
-0.700000000000000 0.543056571646153 0.350000000000000
-0.650000000000000 -0.562263519034985 0.350000000000000
-0.687423184235743 -0.550000000000000 0.350000000000000
-0.687423184235743 0.550000000000000 0.350000000000000
-0.650000000000000 0.562263519034985 0.350000000000000
-0.600000000000000 -0.580757306986853 0.350000000000000
-0.600000000000000 0.580757306986853 0.350000000000000
-0.550000000000000 -0.602175588025358 0.350000000000000
-0.559018196523761 -0.600000000000000 0.350000000000000
-0.559018196523761 0.600000000000000 0.350000000000000
-0.550000000000000 0.602175588025358 0.350000000000000
-0.500000000000000 -0.611654546667407 0.350000000000000
-0.500000000000000 0.611654546667407 0.350000000000000
-0.450000000000000 -0.621890802496185 0.350000000000000
-0.450000000000000 0.621890802496185 0.350000000000000
-0.400000000000000 -0.633709627197388 0.350000000000000
-0.400000000000000 0.633709627197388 0.350000000000000
-0.350000000000000 -0.650000000000000 0.328013583039306
-0.350000000000000 -0.648601488276151 0.350000000000000
-0.350000000000000 0.648601488276151 0.350000000000000
-0.350000000000000 0.650000000000000 0.328013583039306
-0.300000000000000 -0.652925835273842 0.350000000000000
-0.344398306803940 -0.650000000000000 0.350000000000000
-0.344398306803940 0.650000000000000 0.350000000000000
-0.300000000000000 0.652925835273842 0.350000000000000
-0.250000000000000 -0.655306889436146 0.350000000000000
-0.250000000000000 0.655306889436147 0.350000000000000
-0.200000000000000 -0.656845935596801 0.350000000000000
-0.200000000000000 0.656845935596801 0.350000000000000
-0.150000000000000 -0.657621917678860 0.350000000000000
-0.150000000000000 0.657621917678860 0.350000000000000
-0.100000000000000 -0.657833626483958 0.350000000000000
-0.100000000000000 0.657833626483958 0.350000000000000
-0.050000000000000 -0.657772826466375 0.350000000000000
-0.050000000000000 0.657772826466375 0.350000000000000
0.000000000000000 -0.657714445455176 0.350000000000000
0.000000000000000 0.657714445455176 0.350000000000000
0.050000000000000 -0.657772826466375 0.350000000000000
0.050000000000000 0.657772826466375 0.350000000000000
0.100000000000000 -0.657833626483958 0.350000000000000
0.100000000000000 0.657833626483958 0.350000000000000
0.150000000000000 -0.657621917678860 0.350000000000000
0.150000000000000 0.657621917678860 0.350000000000000
0.200000000000000 -0.656845935596801 0.350000000000000
0.200000000000000 0.656845935596801 0.350000000000000
0.250000000000000 -0.655306889436146 0.350000000000000
0.250000000000000 0.655306889436147 0.350000000000000
0.300000000000000 -0.652925835273842 0.350000000000000
0.300000000000000 0.652925835273842 0.350000000000000
0.350000000000000 -0.650000000000000 0.328013583039306
0.344398306803940 -0.650000000000000 0.350000000000000
0.350000000000000 -0.648601488276151 0.350000000000000
0.350000000000000 0.650000000000000 0.328013583039306
0.344398306803940 0.650000000000000 0.350000000000000
0.350000000000000 0.648601488276151 0.350000000000000
0.400000000000000 -0.633709627197388 0.350000000000000
0.400000000000000 0.633709627197388 0.350000000000000
0.450000000000000 -0.621890802496185 0.350000000000000
0.450000000000000 0.621890802496185 0.350000000000000
0.500000000000000 -0.611654546667407 0.350000000000000
0.500000000000000 0.611654546667407 0.350000000000000
0.550000000000000 -0.602175588025358 0.350000000000000
0.550000000000000 0.602175588025358 0.350000000000000
0.559018196523761 -0.600000000000000 0.350000000000000
0.600000000000000 -0.580757306986853 0.350000000000000
0.600000000000000 0.580757306986853 0.350000000000000
0.559018196523761 0.600000000000000 0.350000000000000
0.650000000000000 -0.562263519034985 0.350000000000000
0.650000000000000 0.562263519034985 0.350000000000000
0.687423184235742 -0.550000000000000 0.350000000000000
0.700000000000000 -0.543056571646152 0.350000000000000
0.700000000000000 0.543056571646153 0.350000000000000
0.687423184235742 0.550000000000000 0.350000000000000
0.750000000000000 -0.515184031647057 0.350000000000000
0.750000000000000 0.515184031647057 0.350000000000000
0.782068525828837 -0.500000000000000 0.350000000000000
0.800000000000000 -0.488022684368542 0.350000000000000
0.800000000000000 0.488022684368542 0.350000000000000
0.782068525828837 0.500000000000000 0.350000000000000
0.850000000000000 -0.455940981657012 0.350000000000000
0.850000000000000 0.455940981657012 0.350000000000000
0.858684888828544 -0.450000000000000 0.350000000000000
0.900000000000000 -0.415758323783433 0.350000000000000
0.900000000000000 0.415758323783433 0.350000000000000
0.858684888828544 0.450000000000000 0.350000000000000
0.918655594210029 -0.400000000000000 0.350000000000000
0.950000000000000 -0.370386650440819 0.350000000000000
0.950000000000000 0.370386650440820 0.350000000000000
0.918655594210029 0.400000000000000 0.350000000000000
0.969078151345425 -0.350000000000000 0.350000000000000
1.000000000000000 -0.315690419388116 0.350000000000000
1.000000000000000 0.315690419388116 0.350000000000000
0.969078151345425 0.350000000000000 0.350000000000000
1.011395602055710 -0.300000000000000 0.350000000000000
1.047513450697624 -0.250000000000000 0.350000000000000
1.050000000000000 -0.246270766217288 0.350000000000000
1.050000000000000 0.246270766217288 0.350000000000000
1.047513450697624 0.250000000000000 0.350000000000000
1.011395602055710 0.300000000000000 0.350000000000000
1.070486890335314 -0.200000000000000 0.350000000000000
1.093076255555659 -0.150000000000000 0.350000000000000
1.100000000000000 -0.100000000000000 0.305240764812105
1.100000000000000 -0.131422754869607 0.350000000000000
1.100000000000000 0.100000000000000 0.305240764812105
1.093076255555659 0.150000000000000 0.350000000000000
1.100000000000000 0.131422754869607 0.350000000000000
1.070486890335314 0.200000000000000 0.350000000000000
1.106831149778081 -0.100000000000000 0.350000000000000
1.113777856625557 -0.050000000000000 0.350000000000000
1.116243589291620 0.000000000000000 0.350000000000000
1.113777856625557 0.050000000000000 0.350000000000000
1.106831149778081 0.100000000000000 0.350000000000000
-1.100000000000000 -0.150000000000000 0.378588609813644
-1.100000000000000 -0.156982562029395 0.400000000000000
-1.102276430698734 -0.150000000000000 0.400000000000000
-1.113943692216841 -0.100000000000000 0.400000000000000
-1.121797936429485 -0.050000000000000 0.400000000000000
-1.124586049193094 0.000000000000000 0.400000000000000
-1.121797936429485 0.050000000000000 0.400000000000000
-1.113943692216841 0.100000000000000 0.400000000000000
-1.102276430698734 0.150000000000000 0.400000000000000
-1.100000000000000 0.150000000000000 0.378588609813644
-1.100000000000000 0.156982562029395 0.400000000000000
-1.050000000000000 -0.250000000000000 0.359598114816035
-1.050000000000000 -0.257891876484153 0.400000000000000
-1.054525492787395 -0.250000000000000 0.400000000000000
-1.078986477729295 -0.200000000000000 0.400000000000000
-1.078986477729295 0.200000000000000 0.400000000000000
-1.054525492787395 0.250000000000000 0.400000000000000
-1.050000000000000 0.250000000000000 0.359598114816035
-1.050000000000000 0.257891876484153 0.400000000000000
-1.000000000000000 -0.324444712302072 0.400000000000000
-1.018353059323603 -0.300000000000000 0.400000000000000
-1.018353059323603 0.300000000000000 0.400000000000000
-1.000000000000000 0.324444712302072 0.400000000000000
-0.950000000000000 -0.377382591966043 0.400000000000000
-0.976455149024805 -0.350000000000000 0.400000000000000
-0.976455149024805 0.350000000000000 0.400000000000000
-0.950000000000000 0.377382591966043 0.400000000000000
-0.900000000000000 -0.420869127176997 0.400000000000000
-0.925408282552616 -0.400000000000000 0.400000000000000
-0.925408282552616 0.400000000000000 0.400000000000000
-0.900000000000000 0.420869127176997 0.400000000000000
-0.850000000000000 -0.459202300662950 0.400000000000000
-0.863761595344604 -0.450000000000000 0.400000000000000
-0.863761595344604 0.450000000000000 0.400000000000000
-0.850000000000000 0.459202300662950 0.400000000000000
-0.800000000000000 -0.492031876516497 0.400000000000000
-0.800000000000000 0.492031876516497 0.400000000000000
-0.750000000000000 -0.517447905341044 0.400000000000000
-0.787517014886675 -0.500000000000000 0.400000000000000
-0.787517014886675 0.500000000000000 0.400000000000000
-0.750000000000000 0.517447905341044 0.400000000000000
-0.700000000000000 -0.545025245979560 0.400000000000000
-0.700000000000000 0.545025245979560 0.400000000000000
-0.650000000000000 -0.563147392589895 0.400000000000000
-0.690430973850015 -0.550000000000000 0.400000000000000
-0.690430973850015 0.550000000000000 0.400000000000000
-0.650000000000000 0.563147392589895 0.400000000000000
-0.600000000000000 -0.581227980024949 0.400000000000000
-0.600000000000000 0.581227980024949 0.400000000000000
-0.550000000000000 -0.601723232427915 0.400000000000000
-0.557141687429086 -0.600000000000000 0.400000000000000
-0.557141687429086 0.600000000000000 0.400000000000000
-0.550000000000000 0.601723232427915 0.400000000000000
-0.500000000000000 -0.611094531347894 0.400000000000000
-0.500000000000000 0.611094531347894 0.400000000000000
-0.450000000000000 -0.620740119975244 0.400000000000000
-0.450000000000000 0.620740119975244 0.400000000000000
-0.400000000000000 -0.630964296947887 0.400000000000000
-0.400000000000000 0.630964296947887 0.400000000000000
-0.350000000000000 -0.642178567136918 0.400000000000000
-0.350000000000000 0.642178567136917 0.400000000000000
-0.300000000000000 -0.651031191935653 0.400000000000000
-0.314451651747172 -0.650000000000000 0.400000000000000
-0.314451651747172 0.650000000000000 0.400000000000000
-0.300000000000000 0.651031191935653 0.400000000000000
-0.250000000000000 -0.653233588277355 0.400000000000000
-0.250000000000000 0.653233588277355 0.400000000000000
-0.200000000000000 -0.654593958478629 0.400000000000000
-0.200000000000000 0.654593958478629 0.400000000000000
-0.150000000000000 -0.655227391743765 0.400000000000000
-0.150000000000000 0.655227391743765 0.400000000000000
-0.100000000000000 -0.655354264257961 0.400000000000000
-0.100000000000000 0.655354264257961 0.400000000000000
-0.050000000000000 -0.655260003103450 0.400000000000000
-0.050000000000000 0.655260003103450 0.400000000000000
0.000000000000000 -0.655195026045079 0.400000000000000
0.000000000000000 0.655195026045079 0.400000000000000
0.050000000000000 -0.655260003103450 0.400000000000000
0.050000000000000 0.655260003103450 0.400000000000000
0.100000000000000 -0.655354264257961 0.400000000000000
0.100000000000000 0.655354264257961 0.400000000000000
0.150000000000000 -0.655227391743765 0.400000000000000
0.150000000000000 0.655227391743765 0.400000000000000
0.200000000000000 -0.654593958478629 0.400000000000000
0.200000000000000 0.654593958478629 0.400000000000000
0.250000000000000 -0.653233588277355 0.400000000000000
0.250000000000000 0.653233588277355 0.400000000000000
0.300000000000000 -0.651031191935653 0.400000000000000
0.300000000000000 0.651031191935653 0.400000000000000
0.314451651747172 -0.650000000000000 0.400000000000000
0.350000000000000 -0.642178567136918 0.400000000000000
0.350000000000000 0.642178567136917 0.400000000000000
0.314451651747172 0.650000000000000 0.400000000000000
0.400000000000000 -0.630964296947887 0.400000000000000
0.400000000000000 0.630964296947887 0.400000000000000
0.450000000000000 -0.620740119975244 0.400000000000000
0.450000000000000 0.620740119975244 0.400000000000000
0.500000000000000 -0.611094531347894 0.400000000000000
0.500000000000000 0.611094531347894 0.400000000000000
0.550000000000000 -0.601723232427915 0.400000000000000
0.550000000000000 0.601723232427915 0.400000000000000
0.557141687429086 -0.600000000000000 0.400000000000000
0.600000000000000 -0.581227980024949 0.400000000000000
0.600000000000000 0.581227980024949 0.400000000000000
0.557141687429086 0.600000000000000 0.400000000000000
0.650000000000000 -0.563147392589895 0.400000000000000
0.650000000000000 0.563147392589895 0.400000000000000
0.690430973850015 -0.550000000000000 0.400000000000000
0.700000000000000 -0.545025245979560 0.400000000000000
0.700000000000000 0.545025245979560 0.400000000000000
0.690430973850015 0.550000000000000 0.400000000000000
0.750000000000000 -0.517447905341044 0.400000000000000
0.750000000000000 0.517447905341044 0.400000000000000
0.787517014886675 -0.500000000000000 0.400000000000000
0.800000000000000 -0.492031876516497 0.400000000000000
0.800000000000000 0.492031876516497 0.400000000000000
0.787517014886675 0.500000000000000 0.400000000000000
0.850000000000000 -0.459202300662950 0.400000000000000
0.850000000000000 0.459202300662950 0.400000000000000
0.863761595344604 -0.450000000000000 0.400000000000000
0.900000000000000 -0.420869127176997 0.400000000000000
0.900000000000000 0.420869127176997 0.400000000000000
0.863761595344604 0.450000000000000 0.400000000000000
0.925408282552616 -0.400000000000000 0.400000000000000
0.950000000000000 -0.377382591966043 0.400000000000000
0.950000000000000 0.377382591966043 0.400000000000000
0.925408282552616 0.400000000000000 0.400000000000000
0.976455149024805 -0.350000000000000 0.400000000000000
1.000000000000000 -0.324444712302072 0.400000000000000
1.000000000000000 0.324444712302072 0.400000000000000
0.976455149024805 0.350000000000000 0.400000000000000
1.018353059323603 -0.300000000000000 0.400000000000000
1.050000000000000 -0.250000000000000 0.359598114816035
1.050000000000000 -0.257891876484153 0.400000000000000
1.050000000000000 0.250000000000000 0.359598114816035
1.018353059323603 0.300000000000000 0.400000000000000
1.050000000000000 0.257891876484153 0.400000000000000
1.054525492787395 -0.250000000000000 0.400000000000000
1.078986477729296 -0.200000000000000 0.400000000000000
1.100000000000000 -0.150000000000000 0.378588609813644
1.100000000000000 -0.156982562029395 0.400000000000000
1.100000000000000 0.150000000000000 0.378588609813644
1.078986477729296 0.200000000000000 0.400000000000000
1.100000000000000 0.156982562029395 0.400000000000000
1.054525492787395 0.250000000000000 0.400000000000000
1.102276430698734 -0.150000000000000 0.400000000000000
1.113943692216841 -0.100000000000000 0.400000000000000
1.121797936429485 -0.050000000000000 0.400000000000000
1.124586049193094 0.000000000000000 0.400000000000000
1.121797936429485 0.050000000000000 0.400000000000000
1.113943692216841 0.100000000000000 0.400000000000000
1.102276430698734 0.150000000000000 0.400000000000000
-1.100000000000000 -0.170383535469788 0.450000000000000
-1.106875736188893 -0.150000000000000 0.450000000000000
-1.119601721647357 -0.100000000000000 0.450000000000000
-1.128149324080228 -0.050000000000000 0.450000000000000
-1.131178401444280 0.000000000000000 0.450000000000000
-1.128149324080228 0.050000000000000 0.450000000000000
-1.119601721647357 0.100000000000000 0.450000000000000
-1.106875736188893 0.150000000000000 0.450000000000000
-1.100000000000000 0.170383535469788 0.450000000000000
-1.050000000000000 -0.265038882809379 0.450000000000000
-1.058890197043347 -0.250000000000000 0.450000000000000
-1.085382713844145 -0.200000000000000 0.450000000000000
-1.085382713844145 0.200000000000000 0.450000000000000
-1.058890197043347 0.250000000000000 0.450000000000000
-1.050000000000000 0.265038882809379 0.450000000000000
-1.000000000000000 -0.330111503943432 0.450000000000000
-1.023314355970319 -0.300000000000000 0.450000000000000
-1.023314355970319 0.300000000000000 0.450000000000000
-1.000000000000000 0.330111503943432 0.450000000000000
-0.950000000000000 -0.381491365443764 0.450000000000000
-0.981313172419537 -0.350000000000000 0.450000000000000
-0.981313172419537 0.350000000000000 0.450000000000000
-0.950000000000000 0.381491365443764 0.450000000000000
-0.900000000000000 -0.423546757009402 0.450000000000000
-0.929390882209375 -0.400000000000000 0.450000000000000
-0.929390882209375 0.400000000000000 0.450000000000000
-0.900000000000000 0.423546757009402 0.450000000000000
-0.850000000000000 -0.460601972199813 0.450000000000000
-0.866178060832584 -0.450000000000000 0.450000000000000
-0.866178060832584 0.450000000000000 0.450000000000000
-0.850000000000000 0.460601972199813 0.450000000000000
-0.800000000000000 -0.492968619577233 0.450000000000000
-0.800000000000000 0.492968619577233 0.450000000000000
-0.750000000000000 -0.517693429515146 0.450000000000000
-0.788558400265041 -0.500000000000000 0.450000000000000
-0.788558400265041 0.500000000000000 0.450000000000000
-0.750000000000000 0.517693429515146 0.450000000000000
-0.700000000000000 -0.543977556522719 0.450000000000000
-0.700000000000000 0.543977556522719 0.450000000000000
-0.650000000000000 -0.562274338269867 0.450000000000000
-0.687839966033969 -0.550000000000000 0.450000000000000
-0.687839966033969 0.550000000000000 0.450000000000000
-0.650000000000000 0.562274338269867 0.450000000000000
-0.600000000000000 -0.579318374430640 0.450000000000000
-0.600000000000000 0.579318374430640 0.450000000000000
-0.550000000000000 -0.600000000000000 0.450000000000000
-0.550000000000000 -0.600000000000000 0.450000000000000
-0.550000000000000 0.600000000000000 0.450000000000000
-0.550000000000000 0.600000000000000 0.450000000000000
-0.500000000000000 -0.608960410304100 0.450000000000000
-0.500000000000000 0.608960410304100 0.450000000000000
-0.450000000000000 -0.617741635600329 0.450000000000000
-0.450000000000000 0.617741635600329 0.450000000000000
-0.400000000000000 -0.626351771417994 0.450000000000000
-0.400000000000000 0.626351771417994 0.450000000000000
-0.350000000000000 -0.634737839860314 0.450000000000000
-0.350000000000000 0.634737839860314 0.450000000000000
-0.300000000000000 -0.650000000000000 0.414165353945530
-0.300000000000000 -0.642735076871279 0.450000000000000
-0.300000000000000 0.642735076871279 0.450000000000000
-0.300000000000000 0.650000000000000 0.414165353945530
-0.250000000000000 -0.650001668449451 0.450000000000000
-0.250035290961004 -0.650000000000000 0.450000000000000
-0.250035290961004 0.650000000000000 0.450000000000000
-0.250000000000000 0.650001668449451 0.450000000000000
-0.200000000000000 -0.651165636319878 0.450000000000000
-0.200000000000000 0.651165636319878 0.450000000000000
-0.150000000000000 -0.651662096114060 0.450000000000000
-0.150000000000000 0.651662096114060 0.450000000000000
-0.100000000000000 -0.651719504000977 0.450000000000000
-0.100000000000000 0.651719504000977 0.450000000000000
-0.050000000000000 -0.651604702610827 0.450000000000000
-0.050000000000000 0.651604702610827 0.450000000000000
0.000000000000000 -0.651537803932645 0.450000000000000
0.000000000000000 0.651537803932645 0.450000000000000
0.050000000000000 -0.651604702610827 0.450000000000000
0.050000000000000 0.651604702610827 0.450000000000000
0.100000000000000 -0.651719504000977 0.450000000000000
0.100000000000000 0.651719504000977 0.450000000000000
0.150000000000000 -0.651662096114060 0.450000000000000
0.150000000000000 0.651662096114060 0.450000000000000
0.200000000000000 -0.651165636319878 0.450000000000000
0.200000000000000 0.651165636319878 0.450000000000000
0.250000000000000 -0.650001668449451 0.450000000000000
0.250000000000000 0.650001668449451 0.450000000000000
0.300000000000000 -0.650000000000000 0.414165353945530
0.250035290961004 -0.650000000000000 0.450000000000000
0.300000000000000 -0.642735076871279 0.450000000000000
0.300000000000000 0.650000000000000 0.414165353945530
0.250035290961004 0.650000000000000 0.450000000000000
0.300000000000000 0.642735076871279 0.450000000000000
0.350000000000000 -0.634737839860314 0.450000000000000
0.350000000000000 0.634737839860314 0.450000000000000
0.400000000000000 -0.626351771417994 0.450000000000000
0.400000000000000 0.626351771417994 0.450000000000000
0.450000000000000 -0.617741635600329 0.450000000000000
0.450000000000000 0.617741635600329 0.450000000000000
0.500000000000000 -0.608960410304100 0.450000000000000
0.500000000000000 0.608960410304100 0.450000000000000
0.550000000000000 -0.600000000000000 0.450000000000000
0.550000000000000 0.600000000000000 0.450000000000000
0.550000000000000 -0.600000000000000 0.450000000000000
0.600000000000000 -0.579318374430640 0.450000000000000
0.600000000000000 0.579318374430640 0.450000000000000
0.550000000000000 0.600000000000000 0.450000000000000
0.650000000000000 -0.562274338269867 0.450000000000000
0.650000000000000 0.562274338269867 0.450000000000000
0.687839966033969 -0.550000000000000 0.450000000000000
0.700000000000000 -0.543977556522719 0.450000000000000
0.700000000000000 0.543977556522719 0.450000000000000
0.687839966033969 0.550000000000000 0.450000000000000
0.750000000000000 -0.517693429515146 0.450000000000000
0.750000000000000 0.517693429515146 0.450000000000000
0.788558400265041 -0.500000000000000 0.450000000000000
0.800000000000000 -0.492968619577233 0.450000000000000
0.800000000000000 0.492968619577233 0.450000000000000
0.788558400265041 0.500000000000000 0.450000000000000
0.850000000000000 -0.460601972199813 0.450000000000000
0.850000000000000 0.460601972199813 0.450000000000000
0.866178060832584 -0.450000000000000 0.450000000000000
0.900000000000000 -0.423546757009402 0.450000000000000
0.900000000000000 0.423546757009402 0.450000000000000
0.866178060832584 0.450000000000000 0.450000000000000
0.929390882209375 -0.400000000000000 0.450000000000000
0.950000000000000 -0.381491365443764 0.450000000000000
0.950000000000000 0.381491365443764 0.450000000000000
0.929390882209375 0.400000000000000 0.450000000000000
0.981313172419537 -0.350000000000000 0.450000000000000
1.000000000000000 -0.330111503943432 0.450000000000000
1.000000000000000 0.330111503943432 0.450000000000000
0.981313172419537 0.350000000000000 0.450000000000000
1.023314355970319 -0.300000000000000 0.450000000000000
1.050000000000000 -0.265038882809379 0.450000000000000
1.050000000000000 0.265038882809379 0.450000000000000
1.023314355970319 0.300000000000000 0.450000000000000
1.058890197043347 -0.250000000000000 0.450000000000000
1.085382713844145 -0.200000000000000 0.450000000000000
1.100000000000000 -0.170383535469788 0.450000000000000
1.100000000000000 0.170383535469788 0.450000000000000
1.085382713844145 0.200000000000000 0.450000000000000
1.058890197043347 0.250000000000000 0.450000000000000
1.106875736188893 -0.150000000000000 0.450000000000000
1.119601721647357 -0.100000000000000 0.450000000000000
1.128149324080228 -0.050000000000000 0.450000000000000
1.131178401444280 0.000000000000000 0.450000000000000
1.128149324080228 0.050000000000000 0.450000000000000
1.119601721647357 0.100000000000000 0.450000000000000
1.106875736188893 0.150000000000000 0.450000000000000
-1.100000000000000 -0.177928664190494 0.500000000000000
-1.109724263251734 -0.150000000000000 0.500000000000000
-1.123181039702608 -0.100000000000000 0.500000000000000
-1.132177971154281 -0.050000000000000 0.500000000000000
-1.135357173964056 0.000000000000000 0.500000000000000
-1.132177971154281 0.050000000000000 0.500000000000000
-1.123181039702608 0.100000000000000 0.500000000000000
-1.109724263251734 0.150000000000000 0.500000000000000
-1.100000000000000 0.177928664190494 0.500000000000000
-1.050000000000000 -0.268535076657291 0.500000000000000
-1.061267527862409 -0.250000000000000 0.500000000000000
-1.089016601665847 -0.200000000000000 0.500000000000000
-1.089016601665847 0.200000000000000 0.500000000000000
-1.061267527862409 0.250000000000000 0.500000000000000
-1.050000000000000 0.268535076657291 0.500000000000000
-1.000000000000000 -0.332251565355081 0.500000000000000
-1.025663343200582 -0.300000000000000 0.500000000000000
-1.025663343200582 0.300000000000000 0.500000000000000
-1.000000000000000 0.332251565355080 0.500000000000000
-0.950000000000000 -0.382424075802648 0.500000000000000
-0.983048617674961 -0.350000000000000 0.500000000000000
-0.983048617674961 0.350000000000000 0.500000000000000
-0.950000000000000 0.382424075802649 0.500000000000000
-0.900000000000000 -0.423566129618178 0.500000000000000
-0.930036256663092 -0.400000000000000 0.500000000000000
-0.930036256663092 0.400000000000000 0.500000000000000
-0.900000000000000 0.423566129618178 0.500000000000000
-0.850000000000000 -0.459926005906069 0.500000000000000
-0.865403469852250 -0.450000000000000 0.500000000000000
-0.865403469852250 0.450000000000000 0.500000000000000
-0.850000000000000 0.459926005906069 0.500000000000000
-0.800000000000000 -0.490989040589030 0.500000000000000
-0.800000000000000 0.490989040589031 0.500000000000000
-0.750000000000000 -0.515873886732080 0.500000000000000
-0.784888390745841 -0.500000000000000 0.500000000000000
-0.784888390745841 0.500000000000000 0.500000000000000
-0.750000000000000 0.515873886732080 0.500000000000000
-0.700000000000000 -0.540309484723413 0.500000000000000
-0.700000000000000 0.540309484723413 0.500000000000000
-0.650000000000000 -0.559655742787543 0.500000000000000
-0.679689885521870 -0.550000000000000 0.500000000000000
-0.679689885521870 0.550000000000000 0.500000000000000
-0.650000000000000 0.559655742787543 0.500000000000000
-0.600000000000000 -0.575349551304911 0.500000000000000
-0.600000000000000 0.575349551304911 0.500000000000000
-0.550000000000000 -0.600000000000000 0.450000000000001
-0.550000000000000 -0.593032409026067 0.500000000000000
-0.550000000000000 0.593032409026067 0.500000000000000
-0.550000000000000 0.600000000000000 0.450000000000001
-0.500000000000000 -0.605359962926611 0.500000000000000
-0.528904115091253 -0.600000000000000 0.500000000000000
-0.528904115091253 0.600000000000000 0.500000000000000
-0.500000000000000 0.605359962926611 0.500000000000000
-0.450000000000000 -0.613199185672558 0.500000000000000
-0.450000000000000 0.613199185672558 0.500000000000000
-0.400000000000000 -0.620375282399089 0.500000000000000
-0.400000000000000 0.620375282399089 0.500000000000000
-0.350000000000000 -0.626692590321067 0.500000000000000
-0.350000000000000 0.626692590321067 0.500000000000000
-0.300000000000000 -0.631876564931989 0.500000000000000
-0.300000000000000 0.631876564931989 0.500000000000000
-0.250000000000000 -0.650000000000000 0.450014542497778
-0.250000000000000 -0.635601850243960 0.500000000000000
-0.250000000000000 0.635601850243960 0.500000000000000
-0.250000000000000 0.650000000000000 0.450014542497778
-0.200000000000000 -0.650000000000000 0.460271318457945
-0.200000000000000 -0.637593204461155 0.500000000000000
-0.200000000000000 0.650000000000000 0.460271318457945
-0.200000000000000 0.637593204461155 0.500000000000000
-0.150000000000000 -0.650000000000000 0.464531788967651
-0.150000000000000 -0.637823917453138 0.500000000000000
-0.150000000000000 0.650000000000000 0.464531788967651
-0.150000000000000 0.637823917453139 0.500000000000000
-0.100000000000000 -0.650000000000000 0.464762857820683
-0.100000000000000 -0.636748828635476 0.500000000000000
-0.100000000000000 0.650000000000000 0.464762857820683
-0.100000000000000 0.636748828635476 0.500000000000000
-0.050000000000000 -0.650000000000000 0.463541309213137
-0.050000000000000 -0.635346998843688 0.500000000000000
-0.050000000000000 0.650000000000000 0.463541309213137
-0.050000000000000 0.635346998843688 0.500000000000000
0.000000000000000 -0.650000000000000 0.462886726771511
0.000000000000000 -0.634715415548543 0.500000000000000
0.000000000000000 0.650000000000000 0.462886726771511
0.000000000000000 0.634715415548543 0.500000000000000
0.050000000000000 -0.650000000000000 0.463541309213137
0.050000000000000 -0.635346998843688 0.500000000000000
0.050000000000000 0.650000000000000 0.463541309213137
0.050000000000000 0.635346998843688 0.500000000000000
0.100000000000000 -0.650000000000000 0.464762857820683
0.100000000000000 -0.636748828635476 0.500000000000000
0.100000000000000 0.650000000000000 0.464762857820683
0.100000000000000 0.636748828635476 0.500000000000000
0.150000000000000 -0.650000000000000 0.464531788967651
0.150000000000000 -0.637823917453138 0.500000000000000
0.150000000000000 0.650000000000000 0.464531788967651
0.150000000000000 0.637823917453139 0.500000000000000
0.200000000000000 -0.650000000000000 0.460271318457945
0.200000000000000 -0.637593204461155 0.500000000000000
0.200000000000000 0.650000000000000 0.460271318457945
0.200000000000000 0.637593204461155 0.500000000000000
0.250000000000000 -0.650000000000000 0.450014542497778
0.250000000000000 -0.635601850243960 0.500000000000000
0.250000000000000 0.650000000000000 0.450014542497778
0.250000000000000 0.635601850243960 0.500000000000000
0.300000000000000 -0.631876564931989 0.500000000000000
0.300000000000000 0.631876564931989 0.500000000000000
0.350000000000000 -0.626692590321067 0.500000000000000
0.350000000000000 0.626692590321067 0.500000000000000
0.400000000000000 -0.620375282399089 0.500000000000000
0.400000000000000 0.620375282399089 0.500000000000000
0.450000000000000 -0.613199185672558 0.500000000000000
0.450000000000000 0.613199185672558 0.500000000000000
0.500000000000000 -0.605359962926611 0.500000000000000
0.500000000000000 0.605359962926611 0.500000000000000
0.550000000000000 -0.600000000000000 0.450000000000001
0.528904115091253 -0.600000000000000 0.500000000000000
0.550000000000000 -0.593032409026067 0.500000000000000
0.550000000000000 0.600000000000000 0.450000000000001
0.528904115091253 0.600000000000000 0.500000000000000
0.550000000000000 0.593032409026067 0.500000000000000
0.600000000000000 -0.575349551304911 0.500000000000000
0.600000000000000 0.575349551304911 0.500000000000000
0.650000000000000 -0.559655742787543 0.500000000000000
0.650000000000000 0.559655742787543 0.500000000000000
0.679689885521870 -0.550000000000000 0.500000000000000
0.700000000000000 -0.540309484723413 0.500000000000000
0.700000000000000 0.540309484723413 0.500000000000000
0.679689885521870 0.550000000000000 0.500000000000000
0.750000000000000 -0.515873886732080 0.500000000000000
0.750000000000000 0.515873886732080 0.500000000000000
0.784888390745841 -0.500000000000000 0.500000000000000
0.800000000000000 -0.490989040589030 0.500000000000000
